//X;Y;Z;C2C absolute distances;Nx;Ny;Nz
401.30;176.07;34.88;1.27;0.778834;0.116751;0.616269
393.75;191.68;38.93;0.60;0.787618;0.015226;0.615975
400.09;178.04;35.97;1.34;0.810234;0.157254;0.564617
400.30;179.64;37.10;0.27;0.988541;-0.087740;0.122836
393.59;191.35;39.02;0.77;0.787124;0.032271;0.615949
402.18;171.70;34.16;1.28;0.806002;0.034922;0.590882
393.02;192.07;39.79;0.37;0.766514;-0.004143;0.642214
402.24;170.46;34.18;1.23;0.828689;0.020614;0.559330
399.96;177.04;36.39;1.30;0.790870;0.043702;0.610422
399.81;177.83;36.75;1.12;0.923231;-0.348838;0.161110
400.57;174.34;36.15;1.23;0.803287;0.064206;0.592121
392.43;191.86;40.49;0.33;0.736989;0.047042;0.674266
401.39;171.16;35.37;1.21;0.801998;0.055359;0.594756
392.81;190.27;40.35;0.74;0.771978;0.091937;0.628965
388.32;195.94;40.36;1.80;0.648113;0.377654;0.661307
399.86;175.18;36.86;1.30;0.789266;0.110233;0.604075
392.82;189.82;40.32;0.91;0.731741;0.189482;0.654715
399.41;176.89;37.74;0.93;0.746448;0.044076;0.663983
403.19;163.43;32.71;0.90;0.596220;-0.161508;0.786407
402.38;166.21;33.77;1.23;0.702227;-0.117285;0.702227
399.35;176.13;37.44;1.25;0.742825;0.133021;0.656137
392.90;189.34;40.51;0.91;0.691333;0.336720;0.639280
400.30;173.55;36.79;1.11;0.794197;0.106770;0.598207
399.35;175.79;37.42;1.31;0.745330;0.088973;0.660733
404.17;150.90;26.26;0.51;0.744464;-0.381231;0.548122
402.50;164.91;33.61;1.13;0.730182;0.001380;0.683251
401.17;169.99;35.65;1.24;0.794973;-0.020811;0.606288
400.57;171.82;36.30;1.29;0.803309;0.082206;0.589862
401.46;168.91;35.37;1.16;0.812433;-0.004096;0.583040
391.80;190.99;41.34;0.46;0.783676;0.004132;0.621156
400.03;172.93;36.86;1.32;0.786196;0.046747;0.616207
392.08;190.36;41.33;0.50;0.732935;0.004157;0.680286
399.70;173.75;37.39;1.20;0.761625;0.116832;0.637399
390.37;192.75;41.75;0.43;-0.004130;0.775054;0.631882
390.58;192.60;41.94;0.26;0.146530;0.708479;0.690352
389.77;192.91;41.51;0.90;0.073744;0.666584;0.741773
402.39;163.70;33.60;1.10;0.657065;-0.058692;0.751545
400.51;171.07;36.62;1.15;0.783734;0.046769;0.619334
391.41;191.27;41.87;0.25;0.824956;0.031889;0.564297
400.88;169.50;36.05;1.21;0.793899;0.023636;0.607590
401.98;164.95;34.22;1.23;0.803048;-0.015204;0.595721
399.49;173.75;37.64;1.21;0.753524;0.116952;0.646935
400.25;171.05;36.76;1.26;0.787374;0.043822;0.614915
387.82;194.74;41.63;1.21;0.555876;0.414021;0.720825
402.81;160.90;32.59;0.95;0.643453;-0.155943;0.749433
398.71;175.38;38.29;1.28;0.758808;0.092110;0.644768
391.55;190.04;41.72;0.67;0.848226;0.054499;0.526823
393.08;187.59;41.42;0.71;0.383920;0.534220;0.753136
399.56;172.89;37.47;1.33;0.758047;0.018148;0.651948
399.32;173.48;37.67;1.34;0.764121;0.092045;0.638472
399.76;172.43;37.36;1.25;0.769815;0.046784;0.636550
398.71;175.09;38.18;1.37;0.761920;0.070575;0.643815
402.40;163.05;33.60;1.02;0.654660;-0.209926;0.726190
400.60;170.02;36.51;1.16;0.779775;-0.032315;0.625225
393.52;187.20;41.50;0.51;0.363112;0.565021;0.740878
401.88;165.48;34.50;1.20;0.798517;-0.064281;0.598531
403.36;158.37;31.18;0.80;0.683483;-0.210183;0.699052
403.11;160.88;32.54;0.74;0.608170;-0.104048;0.786958
388.94;193.29;41.63;1.13;0.448426;0.451687;0.771293
401.19;168.40;35.64;1.20;0.794254;0.110109;0.597526
398.94;174.96;37.96;1.34;0.774730;0.035151;0.631314
398.73;175.88;38.08;1.34;0.791345;0.015245;0.611179
403.41;161.06;32.38;0.58;0.709257;-0.044062;0.703572
402.66;163.77;33.48;0.96;0.748056;-0.088950;0.657648
388.88;193.64;41.34;1.20;0.418275;0.476866;0.773075
387.98;194.74;41.33;1.30;0.547401;0.447571;0.707129
403.92;147.64;24.32;0.35;0.719665;-0.378685;0.581962
404.13;151.46;26.85;0.43;0.779986;-0.348983;0.519454
387.53;195.54;41.35;1.71;0.834926;0.102383;0.540755
404.04;156.02;29.44;0.59;0.776848;-0.579901;0.245403
400.92;171.11;36.21;1.08;0.782239;0.032301;0.622140
392.21;189.83;41.10;0.75;0.715287;0.179205;0.675463
391.60;191.27;41.52;0.38;0.824388;0.020644;0.565649
399.46;175.39;37.55;1.18;0.751050;0.114065;0.650318
392.58;189.23;40.83;0.92;0.660589;0.258216;0.704945
390.13;193.12;41.35;0.72;0.026695;0.692665;0.720765
400.25;173.29;36.63;1.27;0.788642;0.067271;0.611162
389.03;194.13;40.92;1.21;0.410945;0.566081;0.714616
389.47;193.98;40.93;1.02;0.462253;0.511958;0.724031
402.27;167.68;34.21;1.17;0.792812;-0.026474;0.608891
390.14;193.52;40.93;0.82;0.083088;0.674905;0.733212
402.65;167.43;33.77;1.08;0.666532;-0.052809;0.743604
402.20;168.86;34.32;1.19;0.791522;-0.023648;0.610682
402.12;169.50;34.37;1.24;0.834513;-0.026208;0.550365
393.00;189.81;40.02;1.01;0.679234;0.217043;0.701095
399.75;177.34;37.14;0.98;0.831815;-0.321134;0.452721
392.52;191.35;40.31;0.57;0.755196;0.009700;0.655427
401.36;172.73;35.17;1.32;0.823734;0.029073;0.566231
392.59;191.65;40.26;0.46;0.755605;0.038133;0.653916
391.00;194.31;40.09;0.55;-0.058939;0.714450;0.697200
403.65;167.64;32.77;0.81;0.663518;-0.026653;0.747685
390.59;194.77;39.74;0.82;0.166150;0.666125;0.727098
402.40;171.35;33.81;1.29;0.679775;0.055813;0.731294
394.15;190.01;39.19;0.72;0.646824;0.398682;0.650132
393.29;191.89;39.71;0.30;0.760126;-0.004139;0.649763
390.52;194.95;39.49;0.95;0.172320;0.632855;0.754851
401.76;174.06;34.69;1.20;0.835902;0.060613;0.545521
401.33;175.14;35.05;1.24;0.793622;0.082398;0.602806
400.27;177.76;35.88;1.29;0.762676;0.211941;0.611069
394.97;189.42;39.15;0.37;0.009720;0.726247;0.687365
393.58;191.76;39.54;0.32;0.784151;0.015267;0.620382
393.23;192.16;39.53;0.38;0.778473;0.029456;0.626986
390.93;194.93;39.49;0.72;0.123633;0.689664;0.713497
394.75;189.69;38.82;0.65;0.172647;0.652394;0.737953
403.00;171.61;33.44;1.01;0.691717;0.117518;0.712543
402.23;173.75;34.20;1.11;0.838818;0.051813;0.541941
401.58;175.39;34.73;1.21;0.810163;0.090981;0.579101
390.01;195.97;38.78;1.58;0.365759;0.634748;0.680673
402.95;172.42;33.58;0.94;0.681561;0.095272;0.725533
393.74;192.05;38.89;0.50;0.805029;0.012385;0.593107
403.16;172.28;33.32;0.91;0.684993;0.108001;0.720500
401.14;177.75;34.92;1.19;0.831067;0.133853;0.539826
395.61;190.26;38.27;0.29;-0.041191;0.734343;0.677527
403.06;173.29;32.90;1.18;0.792144;-0.006888;0.610295
402.15;175.79;33.80;1.24;0.820240;0.112182;0.560910
403.29;173.76;33.07;0.87;0.769200;0.126464;0.626370
400.55;180.18;34.76;1.36;0.815189;0.245949;0.524382
392.15;195.81;38.23;1.04;0.234380;0.687410;0.687410
402.39;175.97;33.19;1.35;0.605846;0.132482;0.784474
404.38;172.03;31.91;0.69;0.625069;0.098079;0.774383
403.52;173.78;32.37;1.05;0.777386;0.070410;0.625070
403.06;175.23;32.94;1.02;0.647645;0.110646;0.753865
401.50;178.85;34.05;1.24;0.837741;0.155686;0.523403
400.93;180.04;34.37;1.30;0.774287;0.204732;0.598803
394.61;192.54;37.47;0.58;0.883188;0.124131;0.452295
404.20;172.80;31.98;0.78;0.617981;0.091607;0.780838
403.38;175.05;32.79;0.85;0.714077;0.095308;0.693549
401.16;179.89;34.17;1.28;0.833786;0.181780;0.521304
404.60;172.67;31.93;0.46;0.600158;0.138498;0.787800
402.90;176.40;33.01;0.99;0.691898;0.172593;0.701062
403.43;175.33;32.46;0.95;0.751444;0.129971;0.646869
402.39;177.42;32.99;1.30;0.685430;0.162619;0.709747
402.55;177.29;32.77;1.31;0.703898;0.186371;0.685415
402.13;178.65;33.32;1.16;0.749372;0.139662;0.647253
403.06;176.98;32.47;1.09;0.698872;0.189760;0.689615
402.79;177.36;32.50;1.26;0.710871;0.165921;0.683471
402.38;178.11;32.66;1.39;0.685335;0.136467;0.715327
402.24;178.65;32.91;1.29;0.649324;0.149149;0.745743
402.41;178.44;32.67;1.31;0.644218;0.126463;0.754315
403.50;176.71;32.16;0.92;0.751711;0.189081;0.631806
401.83;180.46;33.06;1.29;0.804274;0.219907;0.552073
403.55;176.80;31.80;1.07;0.771173;0.171879;0.612984
403.48;177.08;31.92;1.02;0.760994;0.178429;0.623740
403.47;177.38;31.90;1.00;0.747974;0.155639;0.645222
400.73;184.63;34.47;0.44;0.925411;0.056928;0.374666
403.60;177.15;31.63;1.08;0.726775;0.120386;0.676243
401.38;182.02;33.06;1.32;0.811601;0.276789;0.514483
404.47;176.22;31.50;0.54;0.580268;0.125503;0.804697
403.58;177.46;31.61;1.06;0.713468;0.169582;0.679857
401.29;182.65;33.19;1.18;0.804421;0.131848;0.579243
405.26;175.03;30.95;0.26;0.473198;0.140368;0.869701
395.43;193.63;35.39;0.85;0.822055;0.282338;0.494481
404.71;176.19;31.10;0.56;0.570673;0.197364;0.797107
402.55;180.42;32.18;1.15;0.647773;0.279902;0.708552
401.36;182.51;32.61;1.50;0.856874;0.144515;0.494856
403.07;179.75;31.98;0.95;0.628904;0.215846;0.746921
395.85;193.31;35.19;0.82;0.575198;0.534714;0.619054
402.73;180.57;31.95;1.10;0.564166;0.273391;0.779086
400.54;186.43;34.08;0.38;0.854397;0.287878;0.432587
407.96;164.48;25.23;0.46;0.730955;-0.067761;0.679053
402.29;181.63;32.07;1.21;0.660089;0.268808;0.701445
404.82;176.80;30.64;0.62;0.425230;0.228281;0.875824
407.90;165.56;25.55;0.48;0.778535;-0.123083;0.615413
404.65;177.42;30.82;0.59;0.533282;0.222841;0.816059
403.12;180.79;31.85;0.78;0.506837;0.269793;0.818736
401.12;184.14;32.48;1.37;0.846767;0.292576;0.444282
395.64;194.43;34.96;0.62;0.899009;0.248662;0.360486
402.61;181.21;31.72;1.20;0.658519;0.139504;0.739521
403.89;179.12;31.38;0.70;0.767517;0.104194;0.632504
405.11;176.59;30.75;0.34;0.401291;0.196998;0.894515
402.62;180.88;31.69;1.27;0.630345;0.178572;0.755498
403.89;178.82;31.38;0.74;0.766074;0.058708;0.640066
403.22;179.86;31.54;1.04;0.573793;0.207673;0.792234
403.12;180.42;31.84;0.86;0.581868;0.235555;0.778424
399.96;187.57;34.10;0.48;0.766858;0.385871;0.512867
402.16;181.95;32.17;1.20;0.666831;0.290835;0.686113
403.11;180.07;31.76;0.97;0.604712;0.191365;0.773113
403.19;179.60;31.72;1.01;0.616934;0.216004;0.756793
395.68;193.56;35.22;0.81;0.708292;0.407805;0.576210
401.94;181.74;32.40;1.31;0.673954;0.272450;0.686700
407.97;163.02;24.79;0.49;0.830504;-0.146560;0.537385
403.75;178.04;31.48;0.90;0.749492;0.089121;0.655988
403.42;178.84;31.76;0.92;0.706605;0.098425;0.700729
402.82;180.02;32.08;1.05;0.646922;0.243973;0.722475
401.18;183.08;32.99;1.28;0.861914;0.162985;0.480146
396.62;192.41;35.81;0.30;0.040218;0.844574;0.533926
404.12;176.81;31.45;0.79;0.610370;0.158244;0.776149
403.36;178.29;31.84;0.99;0.741915;0.104724;0.662266
404.80;175.18;31.08;0.59;0.526238;0.098938;0.844562
401.98;180.89;32.69;1.27;0.760873;0.215400;0.612107
401.60;181.65;32.89;1.32;0.855212;0.257631;0.449710
404.22;175.90;31.32;0.87;0.593573;0.125820;0.794884
402.43;179.53;32.34;1.32;0.701125;0.293606;0.649784
395.07;194.08;36.32;0.37;0.943202;-0.061146;0.326543
404.28;175.58;31.36;0.84;0.551057;0.109048;0.827312
404.80;174.31;31.16;0.62;0.494802;0.110434;0.861960
400.77;183.53;34.17;0.83;0.993570;-0.057257;0.097673
403.63;176.50;31.95;0.96;0.780675;0.151923;0.606189
401.64;180.26;33.19;1.39;0.788007;0.211266;0.578283
401.37;180.87;33.39;1.38;0.796399;0.204087;0.569295
400.96;181.77;33.67;1.35;0.827079;0.224733;0.515204
394.82;193.71;36.87;0.36;0.925874;-0.006403;0.377777
404.60;174.14;31.67;0.56;0.614287;0.132377;0.777899
403.21;176.73;32.33;1.07;0.712089;0.193083;0.675017
401.19;180.99;33.60;1.36;0.826844;0.194996;0.527547
404.83;172.99;31.39;0.55;0.537567;0.099443;0.837337
402.19;178.34;32.92;1.38;0.662609;0.169079;0.729631
395.96;191.49;36.85;0.42;0.133455;0.727252;0.673271
394.97;192.47;36.74;0.80;0.839134;0.168423;0.517193
400.38;183.93;35.54;0.30;0.924582;0.166453;0.342697
402.59;177.12;33.04;1.15;0.696440;0.226930;0.680790
394.85;191.95;37.27;0.76;0.823673;0.143440;0.548623
392.95;195.55;38.21;0.87;0.350461;0.728633;0.588448
405.26;170.59;31.44;0.26;0.413374;0.095394;0.905551
402.81;175.73;32.97;1.15;0.650412;0.098369;0.753185
401.79;177.76;33.53;1.48;0.831775;0.143308;0.536296
404.96;170.57;31.56;0.43;0.423371;0.095779;0.900879
402.82;175.36;33.09;1.12;0.658293;0.113907;0.744093
401.68;178.19;34.10;1.18;0.830285;0.169049;0.531083
395.07;191.07;37.56;0.76;0.351923;0.633461;0.689114
406.52;161.73;27.28;0.55;0.747617;-0.058834;0.661519
406.89;159.80;26.66;0.25;0.590466;-0.267530;0.761432
393.85;191.89;38.64;0.61;0.840991;0.034523;0.539947
402.20;174.64;34.03;1.18;0.840052;0.127103;0.527406
401.80;175.12;34.42;1.26;0.812566;0.100299;0.574175
394.14;190.63;38.77;0.80;0.762770;0.188774;0.618504
389.98;195.96;39.10;1.34;0.405636;0.617561;0.673853
402.54;172.43;33.60;1.27;0.653288;0.085844;0.752227
391.27;194.72;39.65;0.51;0.082719;0.773499;0.628377
402.61;169.88;33.77;1.18;0.642955;0.018131;0.765689
391.23;193.75;40.74;0.25;0.009724;0.712608;0.701495
390.39;194.10;40.33;0.83;0.133475;0.676373;0.724364
389.56;194.40;40.51;1.07;0.459594;0.586610;0.666830
402.60;168.66;33.88;1.09;0.647583;-0.018104;0.761780
401.08;172.77;35.68;1.23;0.800545;0.049416;0.597232
400.77;173.71;36.05;1.20;0.782244;0.126168;0.610062
402.49;167.80;33.99;1.10;0.700903;-0.038231;0.712231
392.28;190.28;40.94;0.65;0.740086;0.082878;0.667386
391.81;191.35;41.28;0.37;0.794699;0.058287;0.604199
389.92;193.31;41.13;0.92;0.208779;0.604685;0.768614
401.91;168.44;34.53;1.30;0.839004;0.057620;0.541066
400.93;171.59;35.84;1.29;0.789810;0.043800;0.611785
390.13;192.86;41.55;0.69;-0.097940;0.770367;0.630034
403.36;163.67;32.65;0.84;0.590460;-0.103513;0.800401
402.79;165.15;33.19;1.13;0.744964;-0.012532;0.666987
387.63;195.24;41.50;1.47;0.768561;0.256187;0.586244
404.74;153.71;27.49;0.40;0.303260;-0.482388;0.821788
400.05;173.37;36.85;1.28;0.781336;0.064514;0.620768
404.58;154.78;28.18;0.43;0.423672;-0.423672;0.800627
399.46;176.75;38.69;0.35;0.882626;-0.467915;-0.045018
388.37;194.01;41.60;1.16;0.580903;0.441087;0.684101
399.55;174.46;37.25;1.36;0.759422;0.029478;0.649930
399.05;176.39;38.13;1.01;0.936483;0.001257;0.350710
404.63;154.29;27.83;0.47;0.453432;-0.408250;0.792295
402.40;165.69;33.59;1.28;0.744993;-0.098451;0.659767
401.36;169.54;35.33;1.28;0.804727;0.006855;0.593606
387.58;194.95;41.48;1.48;0.698239;0.340168;0.629880
399.87;174.49;37.24;1.11;0.754296;0.046877;0.654859
388.55;194.02;41.34;1.23;0.516492;0.469991;0.715782
399.03;176.32;37.50;1.44;0.759509;0.107658;0.641527
393.26;188.40;40.82;0.77;0.462168;0.545592;0.699092
392.52;189.72;40.88;0.74;0.750184;0.145827;0.644948
390.59;193.42;41.22;0.39;-0.009742;0.716748;0.697264
388.09;195.54;40.73;1.66;0.640165;0.398655;0.656706
392.45;190.78;40.52;0.68;0.778112;0.020880;0.627779
401.06;174.16;35.71;1.13;0.804481;0.085214;0.587834
402.41;170.56;33.91;1.25;0.740973;0.009731;0.671464
401.17;173.99;35.23;1.35;0.785555;0.103863;0.610012
390.98;193.83;40.57;0.44;-0.098613;0.716782;0.690289
400.66;176.16;35.79;1.22;0.775938;0.123141;0.618673
400.97;176.00;35.39;1.22;0.824370;0.172682;0.539069
403.22;171.45;32.93;1.10;0.771254;-0.001375;0.636526
404.85;168.86;31.82;0.37;0.392945;0.154625;0.906469
403.60;171.46;32.59;0.99;0.716726;0.012525;0.697242
400.56;181.79;35.81;0.41;0.984136;0.028979;0.175035
404.06;173.53;32.25;0.70;0.604783;0.079387;0.792424
400.70;182.37;34.87;0.75;0.996757;-0.011677;0.079613
404.64;173.77;31.33;0.70;0.588363;0.158000;0.793010
395.29;192.29;36.64;0.72;0.742072;0.310672;0.593980
404.08;176.00;31.60;0.82;0.683585;0.123611;0.719328
400.72;184.27;34.62;0.46;0.944187;0.074644;0.320840
400.65;184.54;34.75;0.38;0.932698;0.118115;0.340768
403.56;178.07;31.80;0.89;0.743462;0.101582;0.661019
402.55;179.76;32.17;1.27;0.703784;0.272896;0.655908
402.48;180.20;32.41;1.14;0.672682;0.293797;0.679104
401.78;182.26;32.44;1.32;0.750483;0.198793;0.630283
400.98;185.17;33.80;0.52;0.943049;0.063737;0.326490
395.43;193.93;35.49;0.67;0.865416;0.223478;0.448456
400.96;184.53;32.50;1.38;0.875347;0.263659;0.405281
404.82;178.56;30.54;0.48;0.483055;0.209174;0.850238
404.63;178.82;30.57;0.55;0.585748;0.191171;0.787625
403.11;182.39;30.96;0.93;0.408158;0.240709;0.880605
402.30;183.57;31.14;1.26;0.734252;0.243703;0.633627
395.68;195.49;34.19;1.02;0.942674;0.011327;0.333523
405.06;180.26;30.10;0.29;0.468584;0.262714;0.843451
403.18;183.55;30.91;0.64;0.238953;0.301911;0.922904
405.01;180.77;29.51;0.43;0.442216;0.341498;0.829352
404.85;183.69;28.65;0.36;0.619569;0.333364;0.710635
404.86;184.42;28.24;0.41;0.705125;0.265815;0.657374
403.27;187.40;29.08;0.48;0.058338;0.427357;0.902199
400.67;191.68;30.04;0.66;0.697386;0.454383;0.554247
404.89;185.18;27.88;0.33;0.770436;0.276851;0.574267
400.77;192.09;29.49;0.70;0.710526;0.390707;0.585236
400.53;192.54;29.61;0.66;0.687521;0.431157;0.584310
407.71;179.74;24.42;0.47;0.771720;0.148928;0.618279
407.57;180.05;24.52;0.52;0.713786;0.179598;0.676945
405.15;186.35;27.07;0.30;0.539887;0.486400;0.686977
402.18;190.55;27.68;1.03;0.842582;0.322393;0.431414
401.15;192.85;28.50;0.57;0.725658;0.421510;0.543830
407.68;180.55;24.07;0.49;0.774514;0.122915;0.620500
403.22;190.19;27.37;0.41;-0.250740;0.546645;0.798942
401.95;191.89;27.56;0.75;0.777145;0.328484;0.536791
408.52;179.38;22.99;0.37;0.558309;0.378210;0.738409
408.51;180.87;22.27;0.40;0.604981;0.257472;0.753462
407.09;184.30;23.60;0.42;0.837535;0.247419;0.487154
402.21;195.74;23.91;1.49;0.935878;0.280345;0.213397
402.00;196.19;24.17;1.88;0.948357;0.297602;0.109782
402.17;194.67;25.14;0.54;0.949057;0.180064;0.258588
407.46;183.74;23.32;0.35;0.592374;0.289002;0.752044
402.30;193.40;25.62;0.74;0.884290;0.283753;0.370831
402.20;193.71;25.75;0.64;0.967730;0.124331;0.219181
403.02;192.00;26.19;0.45;0.163122;0.546234;0.821596
402.56;192.30;26.02;0.80;0.519636;0.456549;0.722178
408.35;180.56;23.17;0.28;0.843341;0.184247;0.504806
407.09;182.58;24.45;0.50;0.861543;0.224031;0.455580
403.55;190.67;26.98;0.25;-0.483144;0.499747;0.718905
407.90;179.87;24.22;0.34;0.856965;0.113782;0.502657
401.86;191.79;27.88;0.73;0.685571;0.376488;0.623097
401.03;192.81;28.80;0.57;0.725356;0.418030;0.546909
402.96;187.71;28.90;0.73;-0.048301;0.503712;0.862520
399.28;194.17;30.53;0.50;0.968520;0.247873;-0.022974
402.00;188.49;29.32;1.08;0.777847;0.286742;0.559226
402.39;187.34;29.21;1.14;0.695219;0.333770;0.636606
402.23;187.59;29.25;1.20;0.767178;0.287493;0.573398
399.25;194.13;31.15;0.27;0.982808;0.117840;0.142137
402.50;186.58;29.51;1.14;0.608534;0.384250;0.694290
401.98;187.52;29.71;1.20;0.742022;0.240020;0.625934
405.03;182.41;29.17;0.32;0.419730;0.317508;0.850303
403.51;184.84;29.89;0.58;0.484913;0.216020;0.847464
403.42;185.16;30.03;0.51;0.073387;0.366936;0.927347
403.63;184.41;30.07;0.52;0.618204;0.181645;0.764741
403.08;185.11;30.08;0.76;-0.077624;0.330233;0.940702
401.97;186.51;30.10;1.31;0.667564;0.329721;0.667564
399.96;191.07;31.48;0.74;0.759966;0.461232;0.457949
403.99;183.48;30.12;0.43;0.809731;0.119035;0.574601
402.39;185.54;30.18;1.18;0.719719;0.202759;0.663998
401.75;186.57;30.33;1.38;0.609449;0.351291;0.710751
403.20;184.22;30.32;0.78;0.169609;0.343423;0.923739
402.38;185.18;30.27;1.24;0.832966;0.201061;0.515502
401.77;186.13;30.41;1.43;0.662049;0.318884;0.678236
401.26;187.38;30.81;1.24;0.751378;0.407611;0.518926
399.26;192.21;32.36;0.34;0.981781;0.152450;0.113423
401.53;186.23;31.01;1.27;0.652491;0.432213;0.622453
400.56;189.34;32.25;0.42;0.790322;0.375041;0.484495
400.40;189.59;32.29;0.45;0.714624;0.446018;0.538870
401.46;185.76;31.34;1.28;0.682935;0.290850;0.670080
400.97;188.01;32.42;0.43;0.821353;0.292558;0.489683
405.25;178.85;30.25;0.27;0.351350;0.205073;0.913509
400.72;188.22;32.68;0.44;0.792251;0.317219;0.521259
403.37;181.82;31.34;0.65;0.431157;0.192770;0.881444
395.64;196.13;34.37;1.43;0.957321;-0.001220;0.289025
401.94;183.70;31.72;1.23;0.624332;0.293709;0.723840
399.49;189.84;33.73;0.29;0.954203;0.229492;0.191914
395.76;195.04;34.08;0.89;0.889011;0.191232;0.416040
399.55;189.56;33.90;0.26;0.958799;0.184333;0.216161
395.59;195.34;34.44;0.92;0.958193;0.001218;0.286119
404.36;178.48;30.91;0.64;0.673357;0.101667;0.732294
402.21;182.49;31.77;1.26;0.672149;0.156278;0.723736
401.13;186.02;33.18;0.46;0.897317;0.221036;0.382055
401.13;185.62;33.22;0.57;0.962327;0.077545;0.260604
401.41;183.55;32.40;1.32;0.859578;0.224303;0.459144
395.36;195.62;35.31;0.97;0.958544;0.033655;0.282951
401.51;182.83;32.58;1.32;0.854267;0.198980;0.480245
400.98;184.87;33.74;0.60;0.968805;-0.068577;0.238149
400.76;185.26;34.32;0.36;0.889090;0.166253;0.426474
400.89;183.90;33.79;0.87;0.990125;-0.140185;0.001104
395.48;192.80;36.02;0.78;0.666807;0.392142;0.633714
395.38;193.09;36.12;0.68;0.812851;0.229819;0.535217
400.77;183.21;34.32;0.83;0.991522;-0.097433;0.085970
400.75;183.38;34.61;0.64;0.979457;-0.036804;0.198266
400.74;183.06;34.58;0.74;0.987404;-0.045145;0.151641
394.92;193.51;36.60;0.58;0.888443;0.087868;0.450498
394.79;194.07;36.86;0.29;0.921134;-0.065509;0.383694
400.66;183.48;34.96;0.52;0.960641;0.053997;0.272495
395.17;192.66;36.43;0.78;0.818228;0.249026;0.518159
394.83;193.10;36.81;0.61;0.871483;0.177824;0.457051
394.66;193.81;37.13;0.27;0.924605;-0.038033;0.379023
400.61;182.86;35.24;0.50;0.986444;0.103523;0.127322
394.65;193.17;37.05;0.57;0.892388;0.123039;0.434173
400.64;181.72;34.90;0.89;0.980443;-0.178152;-0.083622
394.65;192.90;37.26;0.55;0.878495;0.133715;0.458658
394.58;193.08;37.50;0.37;0.910002;0.063551;0.409704
395.43;191.19;37.15;0.71;0.392232;0.657030;0.643790
405.20;169.58;31.56;0.26;0.338690;0.135750;0.931054
400.77;179.52;34.57;1.40;0.802352;0.147920;0.578231
394.66;191.64;37.42;0.94;0.824966;0.140200;0.547518
394.46;192.61;37.88;0.40;0.883366;0.100030;0.457885
394.46;192.26;37.85;0.56;0.873372;0.042370;0.485207
394.32;192.57;38.34;0.29;0.857179;0.059933;0.511520
400.48;181.23;36.28;0.32;0.979705;0.017516;0.199678
394.43;191.45;37.93;0.84;0.858863;0.119808;0.497996
404.53;169.14;32.22;0.42;0.574517;0.131445;0.807869
394.26;190.97;38.32;0.90;0.844128;0.133129;0.519351
391.90;195.12;39.07;0.31;0.123256;0.755873;0.643012
394.31;190.27;38.78;0.81;0.713235;0.321845;0.622665
393.64;191.79;39.20;0.45;0.796070;0.015229;0.605013
393.43;190.51;39.51;0.85;0.691610;0.080081;0.717818
393.00;191.47;39.77;0.61;0.751630;-0.020995;0.659251
404.68;164.04;31.93;0.25;0.450498;-0.087868;0.888443
402.35;170.09;33.90;1.31;0.770674;0.020904;0.636886
393.36;190.05;39.60;0.98;0.688657;0.196538;0.697943
393.01;190.19;39.86;0.98;0.697293;0.152769;0.700318
393.30;189.70;40.00;0.88;0.625261;0.275242;0.730267
392.48;191.37;40.64;0.35;0.747738;0.023849;0.663565
392.48;189.85;40.56;0.95;0.778179;0.148439;0.610248
404.17;154.65;28.25;0.71;0.563511;-0.337461;0.754039
387.80;195.15;41.23;1.49;0.598698;0.387587;0.700955
387.54;195.85;41.46;1.78;0.856842;0.045680;0.513552
391.99;188.62;41.50;1.03;0.620561;0.265048;0.738007
387.54;194.65;41.75;1.35;0.695131;0.340240;0.633269
400.12;171.10;37.06;1.18;0.781084;0.043786;0.622889
390.97;190.94;42.29;0.34;0.772452;0.043938;0.633552
389.43;192.38;41.97;0.96;0.083158;0.707569;0.701734
389.21;192.58;42.05;0.96;0.351111;0.548510;0.758853
387.33;194.95;42.04;1.31;0.823067;0.222243;0.522655
393.30;186.83;41.91;0.46;0.316958;0.527202;0.788413
397.53;177.22;39.30;1.25;0.999618;0.005033;-0.027180
398.74;174.13;38.40;1.26;0.763393;0.055649;0.643533
387.60;194.13;42.13;1.19;0.640181;0.370285;0.673095
398.61;174.63;38.68;1.14;0.752902;0.104611;0.649765
391.23;189.47;42.15;0.79;0.735722;0.023823;0.676864
400.36;169.32;36.76;1.18;0.779701;0.035122;0.625166
391.44;189.26;42.23;0.66;0.743772;0.044086;0.666978
391.75;188.21;41.85;1.07;0.558398;0.329890;0.761160
399.43;172.34;37.98;1.12;0.764442;0.023758;0.644255
403.52;153.57;29.33;0.45;0.893983;-0.262413;0.363227
391.77;187.96;41.66;1.25;0.475956;0.430160;0.767091
398.74;173.84;38.27;1.37;0.752586;0.073670;0.654360
391.10;189.80;42.24;0.69;0.755431;-0.020945;0.654893
399.54;171.92;37.63;1.27;0.763511;0.052804;0.643633
398.13;175.65;38.86;1.29;0.765781;0.113613;0.632986
397.50;177.46;39.50;1.12;0.999618;0.005033;-0.027180
392.07;187.87;41.73;1.05;0.480019;0.440700;0.758528
391.57;189.04;42.07;0.78;0.757579;0.089041;0.646642
393.47;186.57;41.96;0.40;0.344077;0.541155;0.767309
390.98;190.64;42.54;0.27;0.795016;0.018037;0.606321
392.40;187.71;41.74;0.88;0.507165;0.444389;0.738446
400.20;170.69;37.02;1.16;0.785898;0.037959;0.617190
388.73;193.30;41.95;1.02;0.474046;0.451082;0.756178
388.09;193.96;41.75;1.24;0.533225;0.430872;0.728025
402.01;164.57;34.14;1.22;0.792878;-0.001369;0.609379
387.14;195.81;42.05;1.81;0.531778;0.413239;0.739220
401.70;166.67;34.99;1.12;0.787865;-0.110037;0.605937
392.59;188.31;41.44;0.78;0.577771;0.463892;0.671554
402.01;165.37;34.17;1.26;0.777932;-0.107352;0.619110
389.34;192.94;41.55;1.09;0.333214;0.495835;0.801945
402.21;165.04;34.01;1.16;0.723354;-0.041213;0.689247
402.51;164.05;33.50;1.09;0.723336;-0.082958;0.685495
391.56;190.66;41.67;0.49;0.823453;-0.023448;0.566900
403.31;161.82;32.36;0.79;0.582983;-0.270163;0.766252
392.82;188.45;40.94;0.95;0.523806;0.470594;0.710048
392.20;189.41;40.94;1.03;0.754977;0.155837;0.636965
402.39;165.19;33.55;1.28;0.735722;0.023823;0.676864
400.27;172.88;36.65;1.26;0.784615;0.035090;0.618990
389.78;193.66;41.05;0.88;0.399869;0.551259;0.732269
404.73;156.38;29.11;0.27;0.351809;-0.357954;0.864927
388.03;195.80;40.92;1.69;0.700955;0.348027;0.622527
388.93;194.48;40.72;1.25;0.475691;0.529102;0.702687
388.32;195.27;40.72;1.45;0.634082;0.417729;0.650725
392.09;191.27;41.04;0.36;0.758067;0.070753;0.648328
391.93;191.89;41.12;0.29;0.777140;0.091857;0.622587
390.42;193.66;40.93;0.59;0.009700;0.755196;0.655427
392.08;191.68;40.90;0.34;0.743042;0.076767;0.664827
390.67;193.47;40.90;0.54;-0.015359;0.733055;0.679996
390.15;193.71;40.64;0.93;0.123788;0.669649;0.732289
400.10;175.13;36.56;1.30;0.792638;0.116175;0.598522
389.98;194.09;40.53;0.93;0.379794;0.539535;0.751437
392.62;190.62;40.33;0.74;0.774362;0.015293;0.632558
389.72;194.63;40.09;1.17;0.406811;0.652558;0.639275
400.36;175.68;36.31;1.19;0.780060;0.201554;0.592353
388.77;195.91;39.92;1.69;0.630916;0.446829;0.634263
393.57;189.83;39.72;0.85;0.612207;0.354264;0.706895
393.22;190.32;39.65;0.93;0.685335;0.136467;0.715327
392.92;191.46;40.06;0.46;0.783676;-0.004132;0.621156
389.44;195.56;39.49;1.47;0.542751;0.479291;0.689711
394.46;189.18;39.41;0.63;0.294438;0.677368;0.674150
393.58;190.13;39.30;1.02;0.681326;0.193120;0.706045
393.11;191.76;39.91;0.32;0.761944;-0.020971;0.647303
401.05;175.26;35.62;1.12;0.790747;0.037922;0.610968
393.43;191.07;39.64;0.56;0.722037;0.035325;0.690952
400.14;178.70;37.03;0.57;0.969064;-0.246736;0.005960
403.00;169.71;33.49;1.00;0.693240;-0.050028;0.718968
403.02;169.46;33.32;1.06;0.735768;-0.032481;0.676454
403.00;170.19;33.64;0.92;0.645742;0.046834;0.762118
403.41;168.66;32.98;0.92;0.680286;-0.004157;0.732935
401.63;173.66;34.81;1.27;0.836067;0.087180;0.541657
391.17;194.74;39.95;0.36;-0.009722;0.720826;0.693048
400.21;178.93;37.26;0.34;0.982277;-0.187264;0.008042
393.72;190.40;39.40;0.75;0.719085;0.127073;0.683205
389.42;195.99;39.51;1.47;0.580942;0.393329;0.712600
401.18;174.28;35.18;1.36;0.788784;0.070402;0.610625
390.15;194.98;39.60;1.11;0.279782;0.641100;0.714642
404.33;165.61;32.31;0.39;0.467325;-0.082305;0.880246
399.96;177.37;36.38;1.28;0.804697;0.125503;0.580268
400.07;178.43;37.15;0.62;0.962522;-0.268813;0.035924
400.00;178.16;37.03;0.77;0.950395;-0.307443;0.047201
390.29;194.74;39.86;0.96;0.220508;0.683418;0.695929
389.09;195.74;39.89;1.46;0.588136;0.474195;0.655160
392.17;192.27;40.60;0.34;0.697079;0.061803;0.714326
389.15;195.03;40.25;1.21;0.531955;0.505105;0.679627
388.51;195.69;40.33;1.60;0.641556;0.399522;0.654819
404.77;160.37;30.92;0.26;0.568439;-0.224588;0.791478
403.35;163.98;32.68;0.85;0.595485;-0.125599;0.793488
392.29;190.07;40.71;0.88;0.735004;0.142792;0.662857
404.69;153.94;27.70;0.35;0.399423;-0.441130;0.803658
404.41;154.55;28.08;0.59;0.541696;-0.297059;0.786334
401.12;170.90;35.93;1.10;0.787347;0.052490;0.614272
387.82;195.44;41.12;1.59;0.673259;0.319595;0.666770
403.87;159.67;31.35;0.51;0.643655;-0.165859;0.747127
404.11;154.67;28.55;0.62;0.495044;-0.387920;0.777463
391.77;188.97;41.51;1.05;0.610756;0.175155;0.772203
393.24;187.19;41.73;0.51;0.336808;0.552752;0.762250
392.93;187.40;41.63;0.71;0.430741;0.519859;0.737705
391.36;189.92;42.14;0.56;0.790035;0.012452;0.612935
401.95;163.35;34.06;1.18;0.794505;-0.094411;0.599873
402.29;161.68;33.44;1.02;0.697765;-0.133551;0.703767
399.13;172.69;38.23;1.20;0.754360;0.032430;0.655659
398.99;172.96;38.28;1.24;0.763997;0.006908;0.645183
388.35;192.47;42.56;1.12;0.538895;0.420239;0.730063
391.49;187.71;42.20;1.14;0.484069;0.328532;0.811014
399.56;170.28;37.75;1.21;0.786726;-0.023671;0.616849
393.29;185.77;42.55;0.31;0.366341;0.545441;0.753849
398.48;173.14;38.84;1.25;0.764620;0.035203;0.643520
391.34;188.00;42.53;0.90;0.588563;0.204384;0.782190
390.35;190.24;43.29;0.32;0.795668;0.097458;0.597842
389.12;191.24;43.06;0.76;0.108027;0.694034;0.711792
387.70;192.49;42.72;1.36;0.490133;0.434399;0.755690
402.74;154.30;30.72;0.61;0.589747;-0.292476;0.752766
398.91;171.20;38.50;1.22;0.779950;0.058461;0.623105
393.03;185.30;42.98;0.29;0.404877;0.489430;0.772356
392.45;185.72;42.91;0.61;0.303120;0.525302;0.795095
391.81;186.48;42.88;0.81;0.303874;0.536155;0.787527
388.93;190.82;43.59;0.66;0.083088;0.674905;0.733212
401.37;158.78;33.71;1.12;0.837056;-0.117916;0.534260
397.83;172.49;39.50;1.31;0.752966;0.032371;0.657262
391.90;186.02;43.25;0.63;0.349555;0.526749;0.774820
390.77;187.39;43.22;0.96;0.689722;0.199942;0.695922
387.71;191.47;43.32;1.29;0.521590;0.452044;0.723602
390.19;188.78;43.78;0.50;0.865072;-0.023087;0.501117
389.32;190.24;44.00;0.34;0.091470;0.608347;0.788383
392.35;184.95;43.46;0.44;0.364256;0.486210;0.794303
402.00;146.84;27.47;0.33;0.590407;-0.379900;0.712107
387.28;191.62;43.77;1.16;0.526963;0.457144;0.716470
401.57;145.79;27.27;0.55;0.511885;-0.312202;0.800315
400.58;159.31;34.94;1.13;0.814164;-0.166431;0.556271
395.74;177.57;42.49;0.31;0.365875;0.209691;0.906733
388.96;189.57;44.55;0.37;0.116311;0.593333;0.796510
387.19;191.25;44.18;1.07;0.503423;0.473517;0.722736
385.94;192.87;44.18;1.40;0.330259;0.552580;0.765235
401.44;148.63;29.28;0.56;0.808065;-0.076070;0.584161
400.85;156.29;33.59;1.07;0.797905;-0.257641;0.544949
400.78;155.50;33.39;1.04;0.808950;-0.094064;0.580303
400.37;151.09;31.54;1.10;0.799479;-0.291723;0.525101
395.46;176.14;43.14;0.29;0.377990;0.284622;0.880973
394.88;177.05;43.23;0.46;0.651318;0.029541;0.758230
400.13;152.57;32.72;1.11;0.808021;-0.283984;0.516192
389.65;185.41;44.60;1.19;0.676718;0.213127;0.704720
386.09;191.12;45.27;1.24;0.762676;0.211941;0.611069
397.25;168.21;40.52;1.08;0.742324;-0.052921;0.667948
387.69;188.61;45.42;0.76;-0.202187;0.612734;0.763988
399.93;145.79;29.31;0.65;0.830102;-0.268426;0.488752
388.41;187.28;46.01;0.35;0.667492;0.129915;0.733196
390.80;182.72;45.56;0.41;0.389589;0.421392;0.818932
394.48;174.75;44.06;0.39;0.212155;0.326063;0.921235
390.76;182.35;45.73;0.40;0.398955;0.437408;0.805921
390.39;182.78;45.68;0.60;0.224613;0.456763;0.860765
389.78;182.86;45.65;1.13;0.398108;0.336146;0.853531
388.94;183.83;45.57;1.26;0.411640;0.373788;0.831165
389.57;182.65;45.77;1.34;0.424083;0.321558;0.846613
387.07;186.87;46.32;0.94;0.018089;0.780605;0.624762
386.77;187.17;46.27;1.08;0.747996;0.514556;0.419207
389.63;182.28;46.00;1.26;0.390163;0.331562;0.858976
389.27;182.71;45.97;1.33;0.518711;0.294830;0.802505
387.84;186.06;46.86;0.29;0.625518;0.145504;0.766522
385.45;187.95;46.89;1.83;0.446096;0.324006;0.834277
393.98;172.65;44.87;0.32;-0.327096;0.508993;0.796200
387.72;184.39;46.94;0.76;0.851022;-0.054321;0.522313
387.72;184.65;47.10;0.59;0.858674;-0.080369;0.506181
393.80;172.44;45.01;0.27;-0.299316;0.597031;0.744288
389.74;180.71;46.74;1.16;0.027703;0.410262;0.911547
387.33;184.91;47.34;0.53;0.562165;0.124762;0.817561
389.52;180.46;46.82;1.37;0.030290;0.401671;0.915283
389.07;181.10;46.84;1.84;0.356656;0.317196;0.878740
386.71;185.24;47.44;0.82;0.303709;0.339615;0.890181
386.47;185.59;47.46;0.98;0.257794;0.377005;0.889612
389.71;179.25;47.42;1.19;0.113540;0.359772;0.926106
394.64;165.76;43.68;0.58;0.427396;0.122718;0.895697
394.58;165.60;43.93;0.41;0.514438;0.484471;0.707560
394.53;165.37;44.15;0.29;0.575853;0.552211;0.602873
389.39;178.31;47.74;1.54;0.306536;0.286003;0.907875
394.00;165.67;44.66;0.29;0.697925;0.679105;0.227414
389.60;176.59;48.36;1.51;0.387341;0.195847;0.900895
389.55;176.06;48.38;1.59;0.428135;0.144621;0.892068
389.73;174.03;48.42;1.32;0.379168;0.166152;0.910288
389.38;171.50;48.96;1.80;0.306215;0.130850;0.942927
389.24;155.00;45.70;0.71;0.746086;-0.067826;0.662386
388.34;152.85;45.58;0.73;0.589026;-0.379011;0.713722
387.76;150.67;45.26;0.61;0.674358;-0.070757;0.735007
388.70;154.95;46.22;0.70;0.585308;-0.274413;0.762963
389.32;150.15;43.74;0.67;0.639902;-0.219528;0.736432
390.62;158.85;45.68;0.75;0.873333;0.012074;0.486974
390.44;166.22;47.71;0.36;-0.161415;-0.169041;0.972302
393.04;166.59;44.49;1.11;0.805792;0.542866;0.236634
389.89;179.66;47.20;1.04;0.133147;0.344535;0.929283
393.24;168.38;44.53;1.02;0.862988;-0.101276;0.494970
386.51;187.38;46.33;1.14;0.740248;0.427003;0.519328
388.47;184.73;46.13;0.85;0.743713;0.049962;0.666629
387.93;186.95;46.59;0.30;0.335736;0.344851;0.876561
387.24;187.91;45.38;1.24;-0.003970;0.469829;0.882749
386.04;190.21;45.22;1.45;0.651973;0.283536;0.703234
395.24;168.60;43.77;0.25;0.525707;0.246570;0.814147
389.37;186.34;44.90;0.87;0.793678;-0.018007;0.608071
387.58;189.70;44.62;1.05;0.382706;0.345520;0.856827
394.14;175.99;44.09;0.50;0.910536;-0.296691;0.287922
397.07;167.36;40.34;1.31;0.758338;-0.292160;0.582723
395.27;177.12;42.96;0.35;0.486448;0.125582;0.864637
397.10;169.68;40.52;1.21;0.753685;-0.001378;0.657235
396.47;172.18;41.03;1.30;0.743373;0.067842;0.665427
399.28;157.95;36.48;0.99;0.762737;-0.322758;0.560411
398.57;163.96;38.52;1.15;0.760243;-0.085764;0.643953
397.08;171.65;40.53;1.20;0.714446;0.089123;0.693991
398.54;165.80;38.47;1.36;0.755050;-0.001380;0.655665
397.73;170.70;39.90;1.16;0.735722;-0.029541;0.676639
397.50;171.60;40.08;1.19;0.735154;0.067883;0.674493
399.75;145.22;29.31;0.53;0.853585;-0.274312;0.442883
399.85;148.49;30.94;0.92;0.850131;-0.157650;0.502417
399.93;157.45;35.18;1.14;0.805448;-0.153917;0.572331
399.76;159.70;36.04;1.20;0.786896;-0.171328;0.592825
399.55;162.29;37.04;1.17;0.782623;-0.142159;0.606046
391.39;190.93;41.84;0.41;0.835405;-0.023397;0.549137
400.12;147.97;30.13;0.92;0.811641;-0.314847;0.492047
400.11;148.29;30.27;0.97;0.828521;-0.231251;0.509977
400.34;152.02;32.25;1.03;0.784650;-0.318015;0.532156
399.95;161.63;36.33;1.18;0.757612;-0.172254;0.629565
400.68;154.13;32.79;1.10;0.789440;-0.323750;0.521509
400.96;153.73;32.16;1.10;0.817456;-0.282905;0.501727
392.40;191.04;40.68;0.52;0.774681;0.026617;0.631792
401.01;160.82;34.82;1.12;0.800910;-0.064244;0.595329
399.16;171.88;38.09;1.29;0.754142;0.067772;0.653205
398.56;174.31;38.59;1.25;0.746217;0.061825;0.662825
401.55;155.66;32.29;1.09;0.702125;-0.210171;0.680330
401.42;158.25;33.38;1.17;0.873730;-0.251141;0.416563
399.04;176.28;39.38;0.26;-0.729024;0.684247;-0.018191
401.68;145.30;26.88;1.09;0.739979;-0.338415;0.581297
401.43;162.14;34.60;1.13;0.790936;-0.151583;0.592826
400.89;165.54;35.64;1.29;0.779803;-0.040894;0.624688
399.74;171.81;37.39;1.26;0.767272;0.052670;0.639156
399.56;172.58;37.56;1.29;0.780019;0.073532;0.621420
401.54;162.84;34.50;1.20;0.804515;-0.079156;0.588634
394.67;188.98;39.59;0.48;0.104669;0.709095;0.697301
403.12;153.74;30.02;0.48;0.890436;-0.175763;0.419798
403.14;154.37;30.34;0.47;0.867324;-0.223197;0.444897
402.49;162.34;33.14;1.12;0.785194;-0.142083;0.602730
402.31;163.96;33.72;1.13;0.665248;-0.089187;0.741276
399.89;176.67;36.33;1.44;0.775022;0.049772;0.629972
403.47;151.71;28.18;0.49;0.818335;-0.232709;0.525522
401.74;169.52;34.83;1.29;0.805199;-0.040752;0.591603
403.58;154.49;29.58;0.52;0.855490;0.157552;0.493269
403.05;161.92;32.55;0.90;0.686521;-0.139708;0.713562
402.74;163.95;33.18;1.08;0.768443;-0.076700;0.635304
402.29;167.30;34.29;1.08;0.811057;-0.043575;0.583342
403.41;159.38;31.81;0.59;0.666545;-0.196406;0.719126
400.57;174.65;36.05;1.27;0.789579;0.128881;0.599962
403.05;159.04;31.62;0.94;0.724525;-0.240461;0.645943
402.26;166.50;34.28;1.06;0.801533;-0.106579;0.588375
401.55;169.78;35.06;1.30;0.801160;-0.029260;0.597735
399.89;176.19;36.63;1.31;0.784805;0.126103;0.606777
403.22;154.72;30.34;0.47;0.872941;-0.216370;0.437217
403.07;157.62;31.55;0.68;0.856465;-0.042754;0.514431
402.77;160.09;32.38;0.96;0.561624;-0.183171;0.806862
402.64;161.12;32.73;1.03;0.673807;-0.155960;0.722261
402.42;163.35;33.55;1.06;0.689257;-0.111170;0.715937
402.82;158.78;32.06;0.85;0.752297;-0.136101;0.644613
399.75;176.05;36.86;1.29;0.782691;0.138648;0.606772
402.91;150.91;28.68;0.45;0.833336;-0.155972;0.530305
402.76;158.21;31.96;0.84;0.786089;-0.088635;0.611725
401.16;169.68;35.63;1.25;0.794201;0.001372;0.607653
400.37;173.14;36.39;1.33;0.791218;0.076384;0.606745
399.35;177.19;37.19;1.28;0.807497;-0.212983;0.550079
402.94;150.58;28.80;0.27;0.832742;-0.102469;0.544097
401.91;163.90;34.22;1.19;0.827046;-0.111920;0.550880
401.81;164.48;34.38;1.23;0.807627;-0.015186;0.589498
401.69;165.28;34.62;1.25;0.802692;-0.035021;0.595365
401.42;166.62;35.20;1.21;0.793183;-0.131950;0.594517
399.08;176.70;37.41;1.41;0.756837;0.058658;0.650966
402.20;145.19;26.15;1.02;0.586957;-0.310364;0.747767
399.76;174.16;37.17;1.26;0.744083;0.085912;0.662540
402.26;157.70;32.35;0.96;0.763139;-0.288368;0.578328
401.92;161.88;33.95;1.09;0.834400;-0.127133;0.536296
401.69;163.34;34.39;1.20;0.784981;-0.079510;0.614396
402.28;149.41;28.67;0.46;0.620377;-0.343568;0.705048
401.55;163.61;34.59;1.21;0.802139;-0.073183;0.592636
401.18;166.08;35.36;1.26;0.771066;-0.139241;0.621345
402.21;154.13;31.05;0.82;0.707513;-0.390864;0.588770
401.68;161.99;34.19;1.16;0.816732;-0.143780;0.558817
400.34;169.64;36.61;1.30;0.779775;0.032315;0.625225
399.96;171.70;37.17;1.22;0.764755;0.061697;0.641361
401.40;161.57;34.42;1.16;0.812361;-0.141086;0.565831
400.99;164.93;35.57;1.21;0.794158;0.026518;0.607133
401.69;148.57;28.80;0.57;0.688236;-0.199511;0.697515
400.97;164.38;35.55;1.17;0.809192;-0.067076;0.583703
399.96;170.27;37.26;1.20;0.754322;-0.055823;0.654127
398.93;174.33;38.08;1.32;0.800910;0.128797;0.584768
401.48;155.97;32.36;1.18;0.717283;-0.220342;0.661025
401.35;159.70;33.99;1.15;0.837376;-0.200669;0.508461
400.73;164.99;35.85;1.26;0.790824;-0.004126;0.612029
400.17;168.59;36.95;1.20;0.788769;0.058480;0.611902
401.44;152.92;31.14;1.04;0.772302;-0.266910;0.576462
401.37;156.40;32.72;1.17;0.831883;-0.247566;0.496670
401.38;157.25;33.14;1.12;0.840159;-0.193883;0.506500
401.37;157.94;33.47;1.09;0.838906;-0.207081;0.503343
401.26;148.93;29.31;0.77;0.742234;-0.098475;0.662866
401.28;154.37;31.93;1.14;0.672254;-0.330430;0.662488
401.21;158.14;33.66;1.15;0.829338;-0.224517;0.511654
399.76;169.46;37.51;1.20;0.774326;0.018072;0.632529
401.21;150.99;30.52;0.93;0.672495;-0.315991;0.669254
401.19;155.21;32.52;1.13;0.849635;-0.242535;0.468291
400.14;166.21;36.66;1.29;0.767787;-0.225820;0.599590
399.95;167.06;36.86;1.38;0.770372;-0.101249;0.629504
399.34;170.78;37.98;1.24;0.767263;0.046802;0.639622
400.92;157.10;33.78;1.09;0.835160;-0.136502;0.532800
400.33;163.57;36.25;1.16;0.785791;-0.100968;0.610195
399.76;166.96;37.26;1.28;0.760410;-0.079662;0.644538
399.14;170.45;38.27;1.22;0.766973;-0.023750;0.641240
398.74;172.00;38.58;1.28;0.773599;0.067457;0.630074
400.61;159.64;35.00;1.13;0.795087;-0.177191;0.580035
398.13;173.72;39.10;1.29;0.784890;0.085598;0.613694
400.72;154.45;32.98;1.03;0.802453;-0.267484;0.533405
400.57;154.19;33.07;1.03;0.778139;-0.317966;0.541661
400.27;160.18;35.63;1.12;0.776446;-0.184578;0.602547
399.13;167.22;37.81;1.46;0.714159;-0.343252;0.610045
400.22;149.71;30.90;1.08;0.831989;-0.295021;0.469848
400.35;155.69;33.93;1.11;0.781239;-0.161688;0.602929
399.69;163.75;37.11;1.18;0.759816;-0.098088;0.642696
398.94;166.80;38.19;1.32;0.802517;0.119273;0.584586
398.43;169.87;39.12;1.19;0.760872;0.035291;0.647941
399.76;159.98;36.21;1.14;0.780300;-0.171212;0.601513
399.38;162.85;37.19;1.27;0.769872;-0.067634;0.634605
399.37;163.37;37.42;1.19;0.751855;-0.158843;0.639909
398.25;169.67;39.27;1.20;0.759386;0.020978;0.650303
399.82;148.18;30.98;0.81;0.849311;-0.158046;0.503678
399.11;163.97;37.86;1.19;0.791719;-0.106831;0.601472
398.89;164.90;38.08;1.29;0.779945;0.064399;0.622525
397.11;173.48;40.32;1.24;0.711792;0.108027;0.694034
398.69;164.99;38.37;1.26;0.789810;0.043800;0.611785
397.73;170.35;39.94;1.14;0.732241;-0.070769;0.677359
399.47;156.23;35.42;1.09;0.787555;-0.161125;0.594807
396.91;172.67;40.65;1.22;0.725302;0.070938;0.684766
399.11;158.96;36.83;1.11;0.817367;-0.153349;0.555333
398.12;165.59;38.99;1.31;0.774681;0.026617;0.631792
397.79;167.45;39.53;1.32;0.653101;-0.308006;0.691803
396.70;172.53;40.84;1.25;0.724590;0.046977;0.687577
396.86;171.20;40.83;1.16;0.751616;0.052770;0.657486
396.45;172.52;41.04;1.30;0.752990;0.043960;0.656562
396.49;171.60;41.11;1.25;0.716165;0.127086;0.686263
396.35;172.45;41.37;1.15;0.693740;0.092401;0.714274
395.30;177.82;42.87;0.39;0.648923;0.020933;0.760566
396.29;169.56;41.29;1.30;0.768656;0.046887;0.637942
394.67;176.44;43.39;0.55;0.562526;0.057803;0.824756
394.64;175.32;43.67;0.47;0.285834;0.265725;0.920700
394.35;176.36;43.87;0.45;0.877353;-0.196114;0.437939
394.25;175.76;43.90;0.56;0.695361;-0.032441;0.717928
394.27;176.26;44.17;0.35;0.924611;-0.338135;0.175381
394.05;175.51;43.99;0.64;0.731095;-0.064890;0.679183
393.85;175.17;44.41;0.50;0.811373;-0.239548;0.533188
393.73;174.51;44.34;0.68;0.022553;0.439122;0.898144
390.33;183.12;45.42;0.78;0.292123;0.382938;0.876369
395.06;166.89;43.31;0.61;0.223348;-0.231570;0.946832
394.93;168.46;43.97;0.29;0.354680;-0.040275;0.934120
394.44;167.77;43.69;0.80;0.226772;-0.285929;0.931031
394.60;168.23;44.09;0.45;-0.001268;-0.368984;0.929435
393.69;168.43;44.11;1.04;0.437081;-0.164087;0.884328
389.10;182.25;46.42;1.64;0.405368;0.243819;0.881039
393.83;167.16;44.18;0.85;0.502829;-0.089235;0.859767
389.01;181.57;46.65;1.89;0.441974;0.281816;0.851609
393.23;167.50;44.56;0.98;0.636591;-0.219460;0.739317
390.53;169.00;47.97;0.33;0.379269;-0.079633;0.921853
390.40;167.64;47.85;0.42;0.161398;-0.100722;0.981736
393.33;151.77;41.32;0.44;-0.122059;-0.413877;0.902113
390.09;166.81;47.87;0.78;0.639055;-0.152588;0.753874
390.05;166.52;48.10;0.85;0.882832;-0.170167;0.437780
392.83;151.46;41.59;0.50;0.663508;-0.107876;0.740351
389.97;165.55;47.85;0.91;0.846611;-0.104928;0.521766
390.04;166.11;48.28;0.94;0.976890;-0.082122;0.197339
390.75;161.59;46.51;0.48;-0.133553;-0.455229;0.880301
390.02;164.25;48.02;0.98;0.998581;0.015587;0.050916
390.99;157.22;44.78;0.87;0.281951;-0.384478;0.879022
390.94;157.50;44.91;0.87;0.214526;-0.313975;0.924877
390.32;160.30;46.17;0.84;0.713253;-0.143254;0.686111
390.13;161.82;46.99;0.77;0.978611;-0.024790;0.204222
391.63;153.96;43.69;0.48;0.960579;0.137226;0.241778
391.20;155.76;44.47;0.63;0.911147;0.006499;0.412031
391.12;156.03;44.57;0.70;0.929881;0.073167;0.360512
390.90;156.99;45.01;0.72;0.823861;-0.112278;0.555559
390.81;157.33;45.15;0.74;0.867647;-0.020304;0.496765
390.45;159.89;46.52;0.46;0.989570;0.124131;-0.073087
390.94;157.14;45.62;0.27;0.956924;0.285176;-0.054500
389.29;157.56;46.33;1.55;0.301955;-0.278615;0.911700
388.99;158.35;46.60;1.81;0.498806;-0.132336;0.856551
390.13;153.69;44.90;0.44;0.217586;-0.284968;0.933515
389.97;153.94;44.93;0.58;0.398444;-0.071585;0.914395
389.44;154.58;45.42;0.69;0.660598;-0.023843;0.750361
388.95;156.19;46.10;1.26;0.733618;-0.143108;0.664323
390.44;148.49;42.46;0.39;0.227662;-0.418124;0.879399
389.93;150.50;43.44;0.66;0.294437;-0.342264;0.892279
388.95;155.34;46.02;0.76;0.666285;-0.139875;0.732462
388.91;152.22;44.76;0.80;0.602189;-0.278056;0.748367
388.35;155.61;46.74;1.38;0.587191;-0.144930;0.796368
389.27;149.08;43.24;0.68;0.583506;-0.367756;0.724070
388.28;153.14;45.89;0.60;0.464860;-0.305211;0.831114
387.55;155.10;47.21;1.73;0.716143;-0.196437;0.669740
389.21;145.21;41.54;1.77;0.686750;-0.280143;0.670742
388.22;150.62;44.85;0.62;0.559085;-0.301046;0.772525
388.02;149.85;44.56;0.70;0.598455;-0.300030;0.742855
388.45;146.49;42.73;0.59;0.561437;-0.362900;0.743701
386.70;153.08;46.98;1.00;0.276230;-0.338271;0.899594
386.64;151.76;46.41;0.76;0.393621;-0.222610;0.891912
387.33;145.67;43.07;0.84;0.587470;-0.437690;0.680666
387.30;145.95;43.28;0.63;0.569802;-0.466201;0.676744
386.05;149.74;46.03;1.19;0.638740;-0.275566;0.718383
386.29;149.87;45.83;0.98;0.541119;-0.362371;0.758866
389.93;150.18;43.32;0.65;0.411146;-0.291929;0.863560
387.90;151.94;45.62;0.67;0.603036;-0.379567;0.701624
385.63;193.43;43.86;1.73;0.456353;0.456353;0.763861
392.73;190.43;40.10;0.91;0.757001;0.049896;0.651506
390.14;188.54;43.56;0.75;0.873073;-0.074037;0.481936
386.64;188.83;45.29;1.37;0.728125;0.206483;0.653605
386.50;188.87;45.65;1.16;0.795311;0.141753;0.589395
402.55;176.20;33.38;1.10;0.616661;0.101068;0.780714
401.77;174.25;34.36;1.37;0.809192;0.067076;0.583703
397.73;174.92;39.63;1.15;0.728148;0.182420;0.660699
403.01;172.12;33.55;0.91;0.685317;0.104640;0.720688
400.26;172.52;36.85;1.17;0.787274;0.046643;0.614837
409.06;168.83;23.57;0.38;0.884909;-0.009287;0.465672
403.50;170.03;32.96;0.88;0.748879;-0.058708;0.660102
402.17;170.17;34.15;1.32;0.841304;-0.004064;0.540548
396.48;171.02;41.08;1.29;0.697926;-0.041222;0.714983
396.19;171.05;41.35;1.32;0.740750;0.001379;0.671779
404.20;150.70;26.01;0.55;0.735877;-0.391703;0.552317
403.22;151.07;28.52;0.32;0.835518;-0.152316;0.527929
387.52;153.13;46.54;0.52;0.732695;-0.307571;0.607090
387.90;151.34;45.39;0.62;0.471258;-0.458122;0.753684
389.74;149.51;43.20;0.62;0.642093;-0.403175;0.652048
401.42;144.43;26.83;1.77;0.826818;-0.298530;0.476710
400.37;144.60;28.24;0.76;0.599507;-0.181530;0.779512
386.56;144.82;43.44;1.34;0.882444;-0.148759;0.446277
393.49;147.75;39.76;0.39;0.910107;-0.027739;0.413445
399.95;148.80;30.80;1.03;0.844462;-0.255944;0.470508
401.18;150.20;30.12;0.89;0.731869;-0.282224;0.620255
389.27;150.24;44.03;0.52;0.623633;-0.198639;0.756059
386.09;150.04;46.04;1.17;0.571240;-0.273752;0.773786
403.73;151.54;27.48;0.51;0.961620;-0.177591;0.209162
388.96;151.53;44.49;0.75;0.610706;-0.271249;0.743951
387.71;151.50;45.67;0.59;0.733611;-0.352979;0.580707
403.93;152.91;27.83;0.60;0.740554;-0.341919;0.578507
403.66;152.92;28.26;0.62;0.798030;-0.467257;0.380550
401.08;152.95;31.55;1.12;0.652173;-0.318804;0.687775
391.49;154.35;44.09;0.36;0.946369;0.322195;-0.024007
390.03;154.25;44.98;0.58;0.275966;-0.152118;0.949054
403.40;155.68;30.27;0.61;0.960616;-0.115378;0.252794
402.99;155.71;31.04;0.59;0.699052;-0.210183;0.683483
391.38;155.56;43.96;0.83;0.666336;-0.176158;0.724545
395.69;172.11;41.87;1.25;0.044013;0.991979;0.118496
392.73;171.99;45.39;0.65;0.136592;0.736999;0.661948
396.68;172.83;40.87;1.23;0.727331;0.050013;0.684462
393.15;172.68;44.98;0.70;0.344566;0.356817;0.868306
407.45;173.82;26.06;0.71;0.755354;-0.012520;0.655197
398.57;173.55;38.73;1.21;0.765514;0.085703;0.637686
407.40;174.43;26.14;0.68;0.751628;0.162473;0.639263
403.70;174.37;32.28;0.94;0.763275;0.067559;0.642531
393.45;173.90;44.54;0.78;0.274125;0.254240;0.927479
408.32;175.05;24.84;0.38;0.675591;0.126766;0.726297
399.77;174.76;37.06;1.28;0.778834;0.116751;0.616269
397.38;174.65;39.98;1.17;0.767346;0.061675;0.638260
407.56;175.55;25.65;0.64;0.794197;0.106770;0.598207
393.76;174.98;44.19;0.74;-0.122655;0.198525;0.972391
399.82;175.78;36.96;1.23;0.782819;0.113516;0.611808
407.85;176.54;25.02;0.53;0.770864;0.158397;0.616993
407.30;176.96;25.85;0.65;0.815441;0.118583;0.566563
400.78;176.70;35.38;1.32;0.800514;0.040799;0.597924
398.99;176.61;37.71;1.30;0.863105;-0.009425;0.504937
407.89;177.40;24.92;0.47;0.781239;0.161688;0.602929
403.21;177.24;32.44;0.96;0.702977;0.169263;0.690778
399.12;177.01;37.42;1.34;0.821795;0.034763;0.568721
408.48;177.82;23.92;0.26;0.634296;0.222861;0.740272
399.65;177.42;36.85;1.24;0.878854;-0.091401;0.468253
394.66;177.16;43.47;0.42;0.848934;-0.138810;0.509945
408.30;178.81;23.77;0.35;0.805196;0.190264;0.561658
402.90;178.56;32.15;1.17;0.745908;0.130048;0.653230
399.93;178.68;36.04;1.32;0.955969;-0.196542;0.217934
404.25;179.23;30.74;0.73;0.717359;0.130293;0.684412
407.49;179.59;24.62;0.64;0.687840;0.126825;0.714697
400.09;179.42;35.76;1.24;0.995400;-0.094028;0.018373
406.86;180.03;25.49;0.77;0.805157;0.137900;0.576807
406.88;180.43;25.44;0.70;0.798548;0.180317;0.574288
401.16;180.07;33.91;1.39;0.847464;0.216020;0.484913
403.68;180.47;31.39;0.61;0.679464;0.133493;0.721462
389.02;179.74;47.31;1.90;0.250035;0.399757;0.881860
400.56;181.08;34.39;1.39;0.809391;0.166683;0.563120
406.90;181.96;24.62;0.72;0.855952;0.167051;0.489327
400.37;181.46;34.74;1.27;0.984110;-0.116840;-0.133704
404.01;182.71;30.45;0.41;0.824451;0.124473;0.552075
389.46;181.27;46.73;1.43;0.143238;0.404186;0.903392
403.40;182.90;30.94;0.59;0.426050;0.231711;0.874523
401.40;182.92;32.31;1.53;0.835198;0.230557;0.499287
